-0.259945 -0.40726 0.875539  -0.233154 -0.4253 0.874505
-0.251494 -0.202187 0.946505  -0.246035 -0.155868 0.956646
-0.40726 -0.875539 0.259945  -0.410622 -0.87536 0.255216
-0.251494 -0.946505 0.202187  -0.234996 -0.956023 0.17549
-0.98393 -0.148389 0.0993084  -0.984404 -0.130358 0.118131
-0.875539 -0.40726 0.259945  -0.873946 -0.420228 0.244188
-0.875539 -0.259945 0.40726  -0.88333 -0.230851 0.407965
-0.267163 -0.597061 0.756401  -0.282376 -0.588908 0.757265
-0.732294 -0.678892 0.0534014  -0.7369 -0.674634 0.0429716
-0.597061 -0.756401 0.267163  -0.606187 -0.750469 0.263312
-0.773165 -0.159291 0.613875  -0.774906 -0.158017 0.612005
-0.645145 -0.484168 0.591074  -0.628537 -0.482317 0.610173
-0.903989 -0.427555 0  -0.895995 -0.443976 -0.00883649
-0.946505 -0.251494 -0.202187  -0.94599 -0.242165 -0.215545
-0.0491267 -0.997584 -0.0491267  -0.0850549 -0.99465 -0.0586301
-0.40726 -0.875539 -0.259945  -0.363264 -0.893996 -0.262317
-0.0491267 -0.0491267 -0.997584  -0.0814219 -0.0622443 -0.994734
-0.259945 -0.40726 -0.875539  -0.250058 -0.389802 -0.886299
-0.400823 -0.157156 -0.902576  -0.388207 -0.156276 -0.908225
-0.653922 -0.707361 -0.268376  -0.665742 -0.687238 -0.290675
-0.159291 -0.613875 -0.773165  -0.125575 -0.621898 -0.772964
-0.732294 -0.0534014 -0.678892  -0.724368 -0.0912114 -0.683353
-0.597061 -0.267163 -0.756401  -0.598718 -0.274091 -0.752603
-0.425259 -0.586167 -0.68961  -0.415508 -0.573837 -0.705737
-0.591074 -0.484168 -0.645145  -0.62859 -0.477455 -0.613931
0.40726 -0.259945 -0.875539  0.403455 -0.27861 -0.871551
0.149889 -0.246692 -0.957432  0.132058 -0.276534 -0.951887
0.40726 -0.875539 -0.259945  0.438935 -0.862212 -0.252837
0.149889 -0.957432 -0.246692  0.13039 -0.957911 -0.255745
0.98393 -0.0993084 -0.148389  0.985785 -0.105874 -0.130452
0.875539 -0.259945 -0.40726  0.875049 -0.248616 -0.415306
0.902576 -0.400823 -0.157156  0.902224 -0.402953 -0.153692
0.159291 -0.613875 -0.773165  0.139204 -0.594254 -0.792139
0.322705 -0.669276 -0.669276  0.325582 -0.65405 -0.6828
0.732294 -0.678892 -0.0534014  0.727093 -0.684664 -0.050706
0.773165 -0.159291 -0.613875  0.768689 -0.200748 -0.607304
0.535838 -0.481814 -0.693349  0.549149 -0.453255 -0.702136
0.591074 -0.645145 -0.484168  0.586981 -0.66877 -0.456289
0.875539 -0.259945 0.40726  0.858379 -0.30283 0.414102
0.919379 -0.0525839 0.389841  0.912406 -0.0353599 0.407756
0.946505 -0.251494 0.202187  0.946911 -0.265057 0.181949
0.24298 -0.970031 0  0.254938 -0.966875 0.0126531
0.595699 -0.803208 0  0.59204 -0.805853 -0.0094963
0.40726 -0.875539 0.259945  0.417425 -0.878936 0.230712
0.259945 -0.875539 0.40726  0.245681 -0.872758 0.421823
0 -0.671559 0.740951  0.0122708 -0.664455 0.747228
0 -0.24298 0.970031  0.00329361 -0.224266 0.974522
0.40726 -0.259945 0.875539  0.430101 -0.262536 0.863764
0.669276 -0.669276 0.322705  0.702732 -0.645298 0.299597
0.267163 -0.756401 0.597061  0.27581 -0.737253 0.616755
0.707361 -0.268376 0.653922  0.699926 -0.231191 0.675762
0.645145 -0.484168 0.591074  0.630173 -0.500764 0.593395
-0.987883 0.147141 0.0493615  -0.989372 0.131099 0.0629018
-0.946505 0.251494 0.202187  -0.937135 0.25711 0.235949
-0.149889 0.957432 0.246692  -0.161365 0.960969 0.22472
-0.40726 0.875539 0.259945  -0.402496 0.873162 0.274929
-0.40726 0.259945 0.875539  -0.429502 0.294032 0.853858
-0.149889 0.246692 0.957432  -0.11299 0.225971 0.967559
-0.389841 0.0525839 0.919379  -0.398384 0.029907 0.916731
-0.653922 0.707361 0.268376  -0.676524 0.693402 0.24801
-0.106878 0.703057 0.703057  -0.0573077 0.693149 0.718513
-0.322705 0.669276 0.669276  -0.352333 0.629319 0.69269
-0.707361 0.268376 0.653922  -0.694719 0.234178 0.680093
-0.778295 0.416158 0.47018  -0.802945 0.419205 0.42373
-0.591074 0.484168 0.645145  -0.549186 0.484714 0.680769
-0.645145 0.591074 0.484168  -0.629276 0.619953 0.468689
-0.202187 0.251494 -0.946505  -0.212716 0.231003 -0.949415
-0.40726 0.875539 -0.259945  -0.387077 0.881947 -0.268964
-0.149889 0.957432 -0.246692  -0.185333 0.961867 -0.201156
-0.903989 0.427555 0  -0.895347 0.445206 0.0120714
-0.98393 0.0993084 -0.148389  -0.98362 0.10745 -0.144727
-0.875539 0.259945 -0.40726  -0.87627 0.276522 -0.394571
-0.773165 0.613875 -0.159291  -0.764616 0.634293 -0.114168
0.211325 0.788675 0.57735  0.215732 0.774397 0.594785
-0.597061 0.756401 -0.267163  -0.605679 0.75016 -0.265357
-0.773165 0.159291 -0.613875  -0.793197 0.159449 -0.587719
-0.669276 0.322705 -0.669276  -0.64792 0.362829 -0.669742
-0.425259 0.586167 -0.68961  -0.41262 0.593092 -0.691366
-0.591074 0.645145 -0.484168  -0.598977 0.631786 -0.492008
0.875539 0.40726 -0.259945  0.872674 0.401683 -0.277652
0.957432 0.246692 -0.149889  0.96256 0.228129 -0.14641
0 0.970031 -0.24298  0.0163438 0.97302 -0.23014
0.196749 0.979178 -0.0500019  0.233016 0.971153 -0.0506451
0.157156 0.902576 -0.400823  0.173514 0.894371 -0.412303
0 0.595699 -0.803208  -0.00193164 0.635085 -0.77244
0 0.427555 -0.903989  0.0470662 0.419485 -0.906541
0.148389 0.0993084 -0.98393  0.144368 0.118155 -0.982444
0.40726 0.259945 -0.875539  0.445515 0.263286 -0.855685
0.389841 0.0525839 -0.919379  0.414388 0.0452878 -0.908973
0.756401 0.597061 -0.267163  0.746976 0.595286 -0.296076
0.732294 0.0534014 -0.678892  0.747531 0.0951921 -0.65737
0.586167 0.425259 -0.68961  0.59311 0.416274 -0.689156
0.484168 0.645145 -0.591074  0.499035 0.620043 -0.605401
0.149256 0.149256 0.977469  0.127696 0.172292 0.976734
0.0491267 0.997584 0.0491267  0.0178387 0.998611 0.0495759
0.0527896 0.851862 0.5211  0.0329293 0.860593 0.508228
0.40726 0.875539 0.259945  0.412304 0.870586 0.268488
0.149889 0.957432 0.246692  0.178041 0.953665 0.242537
0.803208 0.595699 0  0.794815 0.606837 0.00420608
0.903989 0.427555 0  0.90303 0.429427 0.0114073
0.98393 0.0993084 0.148389  0.985837 0.0725201 0.151214
0.875539 0.259945 0.40726  0.880332 0.251297 0.402325
0.211325 0.57735 -0.788675  0.199416 0.555275 -0.807405
0.57735 0.788675 -0.211325  0.573435 0.79005 -0.216782
0.957432 0.246692 0.149889  0.95309 0.256281 0.161057
0.773165 0.159291 0.613875  0.757519 0.122932 0.641134
0.68961 0.425259 0.586167  0.692387 0.446563 0.566729
0.484168 0.591074 0.645145  0.495739 0.612011 0.616186
-0.105347 -0.868513 0.484341  -0.0912253 -0.876087 0.473444
-0.497052 -0.31246 0.809511  -0.503286 -0.308934 0.807009
-0.64777 -0.106574 0.754345  -0.634673 -0.0797987 0.76865
-0.421839 -0.735924 0.529592  -0.437462 -0.726579 0.529821
-0.735924 -0.529592 0.421839  -0.731791 -0.544033 0.4105
-0.868513 -0.105347 -0.484341  -0.86505 -0.141068 -0.481444
-0.105347 -0.868513 -0.484341  -0.122306 -0.867578 -0.482027
-0.484341 -0.868513 -0.105347  -0.459977 -0.885237 -0.0691079
-0.809511 -0.497052 -0.31246  -0.799747 -0.497347 -0.336231
-0.421839 -0.735924 -0.529592  -0.42764 -0.739822 -0.519411
0.105347 -0.868513 -0.484341  0.0969256 -0.858807 -0.503046
0.31246 -0.809511 -0.497052  0.31925 -0.812359 -0.48801
0.64777 -0.106574 -0.754345  0.626286 -0.133721 -0.768039
0.735924 -0.529592 -0.421839  0.743642 -0.520583 -0.419511
0.868513 -0.484341 0.105347  0.860004 -0.488476 0.147595
0.100318 -0.95069 0.29347  0.0826479 -0.95695 0.278238
0.105347 -0.484341 0.868513  0.0459304 -0.477936 0.877193
0.29347 -0.100318 0.95069  0.276669 -0.102032 0.955533
0.31246 -0.497052 0.809511  0.337326 -0.5129 0.789395
0.529592 -0.735924 0.421839  0.516893 -0.72467 0.455714
-0.868513 0.105347 0.484341  -0.878503 0.0892887 0.469318
-0.484341 0.868513 0.105347  -0.480441 0.874231 0.0699778
-0.105347 0.484341 0.868513  -0.0799106 0.483045 0.871942
-0.31246 0.809511 0.497052  -0.319727 0.812445 0.487554
-0.484341 0.105347 -0.868513  -0.463398 0.115447 -0.878598
-0.484341 0.868513 -0.105347  -0.474021 0.878344 -0.0617708
-0.105347 0.868513 -0.484341  -0.0864367 0.839457 -0.536508
-0.95069 0.100318 -0.29347  -0.947389 0.0972408 -0.304957
-0.31246 0.809511 -0.497052  -0.302282 0.791494 -0.53119
-0.31246 0.497052 -0.809511  -0.311205 0.501781 -0.807073
-0.809511 0.497052 -0.31246  -0.81611 0.474388 -0.330031
-0.64777 0.106574 -0.754345  -0.625065 0.0939598 -0.774897
0.95069 0.100318 -0.29347  0.938332 0.0895478 -0.333939
0.484341 0.868513 -0.105347  0.452308 0.885855 -0.10334
0.31246 0.809511 -0.497052  0.282964 0.814056 -0.507192
0.809511 0.31246 -0.497052  0.803784 0.308998 -0.508381
0.529592 0.735924 -0.421839  0.542377 0.731428 -0.413328
0.484341 0.105347 0.868513  0.502829 0.105615 0.857909
0.31246 0.497052 0.809511  0.258281 0.490587 0.832236
0.64777 0.754345 0.106574  0.643107 0.752155 0.143794
0.809511 0.497052 0.31246  0.784244 0.531163 0.320668
0.421839 0.735924 0.529592  0.452246 0.741084 0.496254
0.529592 0.421839 0.735924  0.529651 0.378564 0.759052
-0.211325 -0.788675 0.57735  -0.220342 -0.793505 0.567274